# .PCD v0.7 - Point Cloud Data file format
VERSION 0.7
FIELDS x y z rgb
SIZE 4 4 4 4
TYPE F F F F
COUNT 1 1 1 1
WIDTH 1060
HEIGHT 1
VIEWPOINT 0 0 0 1 0 0 0
POINTS 1060
DATA ascii
-67.778847 96.020012 79.18576 1.7999399e-038
-67.4347 96.878029 81.685181 1.7081044e-038
-68.344612 99.587868 89.569214 1.4142308e-038
-68.397461 101.10931 93.997986 1.2581104e-038
-67.008614 100.51292 92.268799 1.3132117e-038
-66.239647 100.84245 93.231934 1.2856611e-038
-65.378059 101.03883 93.807953 1.2581104e-038
-64.681305 101.49987 95.153625 1.2121927e-038
-63.975235 101.96053 96.49826 1.1662749e-038
-62.849659 101.75659 95.910248 1.184642e-038
-62.050529 102.08312 96.864899 1.1479078e-038
-61.483273 102.80807 98.978241 1.0744394e-038
-60.588589 103.00059 99.543243 1.0468888e-038
-60.074795 103.85812 102.04224 9.5505329e-039
-59.84721 105.2485 106.09109 8.0811649e-039
-58.400784 104.50668 103.93881 8.9076844e-039
-56.821487 103.49629 101.00546 9.9178749e-039
-56.12434 104.08513 102.72321 9.3668619e-039
-54.779297 103.47198 100.94507 1.000971e-038
-52.751324 101.52142 95.276947 1.2030091e-038
-53.008541 103.97827 102.42792 9.4586974e-039
-51.012001 102.02402 96.74884 1.1570914e-038
-48.790077 99.531761 89.504669 1.4142308e-038
-47.708454 99.311455 88.868774 1.4417814e-038
-44.848991 99.447762 89.279694 1.4234143e-038
-46.20031 104.7207 104.62289 8.6321779e-039
-43.804237 101.5462 95.393341 1.2030091e-038
-42.204327 100.11259 91.227783 1.3591295e-038
-41.073891 99.750877 90.180176 1.3958637e-038
-40.058006 99.656517 89.910278 1.4050472e-038
-40.624279 103.59193 101.36346 9.8260394e-039
-39.983524 104.57231 104.22025 8.8158489e-039
-40.254219 110.97108 122.84528 1.9281867e-039
-39.227562 111.14478 123.35541 1.7445157e-039
-37.387512 112.16254 126.3259 6.4248974e-040
-35.863857 110.85194 122.5174 2.0200222e-039
-34.872547 111.15627 123.40726 1.7445157e-039
-33.670189 110.78579 122.3338 2.1118577e-039
-30.882177 112.49937 127.33231 2.7514776e-040
-25.89345 110.04714 120.21243 2.9383771e-039
-24.942013 110.61242 121.86078 2.2955287e-039
-23.950191 111.04177 123.11356 1.8363512e-039
-22.782843 110.65955 122.00461 2.2036932e-039
-21.516773 109.73552 119.31897 3.2138836e-039
-20.444794 109.75623 119.38226 3.2138836e-039
-19.467644 110.31667 121.01596 2.5710352e-039
-18.36669 110.20016 120.67966 2.7547062e-039
-17.331491 110.48823 121.52057 2.3873642e-039
-16.250708 110.50483 121.57132 2.3873642e-039
-15.13233 110.24979 120.83148 2.6628707e-039
-14.08777 110.53479 121.66302 2.3873642e-039
-13.053424 110.9541 122.88528 1.9281867e-039
-11.981571 111.1018 123.31693 1.7445157e-039
-10.919972 111.38377 124.13925 1.4690092e-039
-9.8169422 111.25867 123.77676 1.5608447e-039
-8.7268944 111.26782 123.80484 1.5608447e-039
-7.6458697 111.41129 124.22354 1.4690092e-039
-6.5540147 111.4183 124.24503 1.4690092e-039
-5.4885192 111.96579 125.83926 8.2616073e-040
-4.4016232 112.24145 126.64221 5.5065424e-040
-3.2615047 110.89129 122.71356 2.0200222e-039
-2.1743903 110.89396 122.7218 2.0200222e-039
-1.0779158 109.94776 119.96841 3.0302126e-039
-4.817829e-006 110.21908 120.75812 2.6628707e-039
1.0792468 110.08316 120.36246 2.8465416e-039
2.1743939 110.89396 122.7218 2.0200222e-039
3.2854018 111.70367 125.07776 1.1016672e-039
4.36446 111.29369 123.88409 1.5608447e-039
5.4287925 110.7473 122.29324 2.1118577e-039
6.4903102 110.33526 121.09323 2.5710352e-039
7.5436811 109.9222 119.89008 3.0302126e-039
8.6313353 110.04958 120.25952 2.8465416e-039
9.7094603 110.04051 120.23175 2.9383771e-039
10.813829 110.30106 120.98846 2.6628707e-039
11.879404 110.15452 120.56027 2.7547062e-039
12.973834 110.27756 120.91647 2.6628707e-039
14.036043 110.12891 120.48187 2.8465416e-039
15.243724 111.06145 123.19345 1.8363512e-039
16.171148 109.96381 119.99692 3.0302126e-039
17.331482 110.48823 121.52057 2.3873642e-039
18.321621 109.92972 119.8927 3.0302126e-039
19.443792 110.18148 120.62256 2.7547062e-039
20.469961 109.8914 119.77557 3.0302126e-039
21.437269 109.33009 118.13922 3.6730611e-039
22.671576 110.11908 120.43195 2.8465416e-039
23.891909 110.7716 122.32736 2.1118577e-039
24.667927 109.3969 118.32385 3.5812256e-039
25.671041 109.10195 117.46213 3.9485676e-039
26.535812 108.26612 115.02643 4.7750871e-039
27.865646 109.31908 118.08661 3.6730611e-039
29.18 110.23555 120.74936 2.7547062e-039
30.141602 109.80154 119.48257 3.2138836e-039
30.941097 108.82731 116.64386 4.2240741e-039
32.157505 109.33549 118.11838 3.6730611e-039
33.178658 109.16848 117.6282 3.8567321e-039
34.992325 108.1581 114.67981 4.9587581e-039
41.076733 110.25859 120.76758 2.6628707e-039
44.943573 109.14867 117.51883 3.8567321e-039
45.881649 108.83554 116.60284 4.2240741e-039
46.813251 108.52164 115.68457 4.5914161e-039
47.560886 107.80466 113.59387 5.3261e-039
48.777817 108.1595 114.62091 4.9587581e-039
50.001083 108.51299 115.64392 4.5914161e-039
51.04158 108.46338 115.49438 4.6832516e-039
52.144939 108.54662 115.73123 4.5914161e-039
53.183807 108.49496 115.57565 4.5914161e-039
54.28801 108.57603 115.80612 4.4995806e-039
55.393238 108.65597 116.03329 4.4077451e-039
56.430038 108.6012 115.86862 4.4995806e-039
57.535919 108.67896 116.08942 4.4077451e-039
58.498833 108.48873 115.53073 4.5914161e-039
59.750435 108.83115 116.52118 4.2240741e-039
60.635509 108.50565 115.56912 4.5914161e-039
61.438076 108.04626 114.22769 5.1424291e-039
62.693439 108.38526 115.20819 4.7750871e-039
64.032898 108.85593 116.57156 4.2240741e-039
65.142036 108.92603 116.76996 4.1322386e-039
66.009476 108.59624 115.80548 4.4995806e-039
66.623924 107.8673 113.68033 5.3261e-039
67.557182 107.66925 113.09906 5.509771e-039
68.82428 108.00117 114.05887 5.1424291e-039
70.011154 108.19905 114.629 4.9587581e-039
71.288132 108.5282 115.58072 4.5914161e-039
72.39402 108.59103 115.75812 4.4995806e-039
73.589943 108.78514 116.3172 4.3159096e-039
74.425751 108.44894 115.33432 4.6832516e-039
75.806549 108.90519 116.65567 4.2240741e-039
76.915466 108.96357 116.82016 4.1322386e-039
77.741356 108.62492 115.83026 4.4995806e-039
78.464539 108.15383 114.45535 5.0505936e-039
78.984421 107.4188 112.31314 5.7852775e-039
79.980591 107.34238 112.08582 5.877113e-039
80.378471 106.47537 109.56015 6.795468e-039
81.161858 106.13474 108.56479 7.16281e-039
82.243568 106.1879 108.71439 7.16281e-039
82.604492 105.32073 106.18848 8.0811649e-039
84.824432 106.81596 110.53049 6.428126e-039
85.489899 106.34109 109.14514 6.979139e-039
88.064964 108.22441 114.6152 4.9587581e-039
87.547066 106.30714 109.03683 6.979139e-039
115.79024 128.37614 173.14709 9.1728997e-041
117.89686 129.30623 175.84515 9.1744412e-041
124.91569 91.010002 64.390442 2.3417693e-038
124.6332 90.160187 61.919403 2.3506658e-038
137.34319 97.965065 84.588104 1.5979018e-038
139.44148 96.755318 81.064514 1.7264715e-038
138.08304 95.165344 76.443604 1.9009589e-038
140.4556 96.15081 79.304077 1.7907563e-038
143.2027 97.377846 82.866241 1.6621866e-038
142.89351 96.524086 80.384094 1.7540221e-038
141.47865 94.939629 75.779388 1.919326e-038
141.68306 94.455376 74.370667 1.9744273e-038
143.1653 94.823776 75.438721 1.9376931e-038
142.98972 94.096466 73.324066 2.0111615e-038
140.38766 91.791939 66.628113 2.2591173e-038
139.61497 90.705261 63.469788 2.3508811e-038
140.70033 90.831856 63.835632 2.3509528e-038
142.35239 91.320412 65.252808 2.3050351e-038
-78.375786 79.927765 30.042343 2.3461099e-038
-77.923798 80.26149 31.005951 2.3462534e-038
-78.34269 81.508057 34.596893 2.3467557e-038
-77.00016 80.928726 32.932678 2.3465045e-038
-77.143677 81.915436 35.775909 2.346935e-038
-78.000244 83.687775 40.880508 2.3476525e-038
-76.651833 83.106735 39.211441 2.3474014e-038
-75.31311 82.523949 37.537338 2.3471861e-038
-72.399979 81.947205 35.887482 2.346935e-038
-71.549408 81.884338 35.709885 2.3468992e-038
-70.699364 81.820595 35.529922 2.3468992e-038
-70.187279 82.151016 36.484589 2.3470068e-038
-69.668633 82.481239 37.438736 2.3471503e-038
-70.905006 84.92112 44.466095 2.3481547e-038
-70.550514 86.508377 49.04303 2.3488363e-038
-66.782616 82.874809 38.586273 2.3473296e-038
-64.975746 81.615883 34.965622 2.3467915e-038
-64.336388 81.810448 35.529465 2.3468992e-038
-68.014542 87.568703 52.111237 2.3492668e-038
-68.638 89.490044 57.646881 2.350056e-038
-65.508217 86.504417 49.055069 2.3488363e-038
-65.509499 87.629578 52.298553 2.3493027e-038
-64.705223 87.692619 52.484131 2.3493027e-038
-64.286484 88.286789 54.199005 2.3495538e-038
-65.863724 91.675156 63.959229 2.3509528e-038
-67.00042 94.534821 72.19751 2.0570792e-038
-67.152336 96.065178 76.608398 1.8917753e-038
-67.551125 97.996689 82.174713 1.6897373e-038
-68.548241 100.86382 90.435242 1.3866801e-038
-68.060623 101.59776 92.553406 1.3040282e-038
-66.941383 101.39653 91.978851 1.3315788e-038
-66.260063 101.8625 93.325562 1.2764775e-038
-65.655167 102.46185 95.056458 1.2121927e-038
-65.207443 103.3287 97.557739 1.1203572e-038
-64.160423 103.25816 97.35965 1.1295407e-038
-62.95018 102.91856 96.386658 1.1662749e-038
-62.229988 103.3821 97.726624 1.1203572e-038
-61.73893 104.24771 100.22455 1.0285217e-038
-60.683662 104.17364 100.01633 1.0285217e-038
-59.860058 104.50143 100.96552 1.000971e-038
-59.483784 105.63503 104.23538 8.8158489e-039
-58.415924 105.55862 104.02051 8.8158489e-039
-57.202663 105.21203 103.02747 9.1831909e-039
-56.139141 105.13332 102.80585 9.2750264e-039
-54.794151 104.51477 101.02942 9.9178749e-039
-53.252312 103.49033 98.083771 1.1019901e-038
-53.226746 105.42992 103.67551 8.9995199e-039
-51.494267 103.99824 99.556793 1.0468888e-038
-48.609241 100.13501 88.433929 1.4601485e-038
-47.723934 100.31763 88.964783 1.4417814e-038
-46.493752 104.10555 99.890625 1.0377052e-038
-46.034771 105.36847 103.53357 8.9995199e-039
-43.759315 102.43658 95.092438 1.2121927e-038
-42.217533 101.12571 91.320831 1.3499459e-038
-41.031708 100.62538 89.884094 1.4050472e-038
-39.908985 100.25916 88.833557 1.4417814e-038
-40.582512 104.49998 101.05545 9.9178749e-039
-39.685703 104.81095 101.95593 9.6423684e-039
-39.871567 110.9938 119.77805 3.0302126e-039
-38.855049 111.16864 120.28641 2.8465416e-039
-37.438622 113.41702 126.77353 4.5881875e-040
-35.696259 111.4156 121.0116 2.5710352e-039
-34.794323 111.99423 122.6832 2.0200222e-039
-33.553574 111.48447 121.21872 2.5710352e-039
-30.406364 111.85197 122.28998 2.1118577e-039
-26.088812 111.96446 122.62918 2.0200222e-039
-25.068298 112.26238 123.49115 1.7445157e-039
-23.896269 111.87799 122.38687 2.1118577e-039
-22.814816 111.90126 122.45715 2.1118577e-039
-21.653292 111.51447 121.34564 2.4791997e-039
-20.524204 111.26279 120.62338 2.7547062e-039
-19.447462 111.2827 120.68359 2.7547062e-039
-18.325132 111.02873 119.95444 3.0302126e-039
-17.292316 111.3193 120.79431 2.6628707e-039
-16.253714 111.60888 121.63123 2.3873642e-039
-15.190814 111.76099 122.07187 2.2036932e-039
-14.124821 111.91206 122.50937 2.0200222e-039
-12.928558 110.97012 119.79688 3.0302126e-039
-11.910818 111.52852 121.40787 2.4791997e-039
-10.961658 112.9051 125.37665 1.0098317e-039
-9.8664017 112.91547 125.40811 1.0098317e-039
-8.7390442 112.51511 124.25571 1.3771737e-039
-7.6100912 111.97704 122.70627 2.0200222e-039
-6.475615 111.16469 120.36621 2.8465416e-039
-5.4496665 112.26318 123.5329 1.6526802e-039
-4.3652267 112.40465 123.94131 1.5608447e-039
-3.2780118 112.54505 124.3465 1.3771737e-039
-2.1880493 112.68436 124.74838 1.2853382e-039
-1.075475 110.77374 119.24237 3.3057191e-039
-4.8779207e-006 111.59382 121.60583 2.3873642e-039
1.0794568 111.18352 120.42331 2.8465416e-039
2.1641698 111.45508 121.20566 2.5710352e-039
3.2581244 111.86213 122.37836 2.1118577e-039
4.3811421 112.81439 125.12213 1.1016672e-039
5.3833723 110.89745 119.59698 3.1220481e-039
6.4835744 111.30125 120.7598 2.6628707e-039
7.5172887 110.61147 118.77084 3.3975546e-039
8.60116 110.73999 119.13998 3.3057191e-039
9.7828932 111.95971 122.65372 2.0200222e-039
10.935153 112.63204 124.58975 1.2853382e-039
11.852494 110.98248 119.83429 3.0302126e-039
13.05578 112.06209 122.94373 1.9281867e-039
13.952571 110.54728 118.57632 3.4893901e-039
15.098079 111.07867 120.10559 2.9383771e-039
16.392807 112.56397 124.38358 1.3771737e-039
17.377085 111.86497 122.36682 2.1118577e-039
18.392662 111.43793 121.13361 2.5710352e-039
19.614294 112.23732 123.43454 1.7445157e-039
20.675121 112.08089 122.9809 1.9281867e-039
21.467997 110.56017 118.59573 3.4893901e-039
22.731451 111.49236 121.27887 2.4791997e-039
23.546997 110.24275 117.67477 3.8567321e-039
24.672804 110.49124 118.38751 3.5812256e-039
25.866632 111.01099 119.88174 3.0302126e-039
27.004145 111.25705 120.58719 2.7547062e-039
27.974277 110.82121 119.32761 3.2138836e-039
29.007095 110.65672 118.84988 3.3975546e-039
29.99947 110.35517 117.97708 3.7648966e-039
31.062319 110.32478 117.88559 3.7648966e-039
32.084663 110.15736 117.39908 3.9485676e-039
33.10347 109.98895 116.90973 4.1322386e-039
34.203163 110.09142 117.20068 4.0404031e-039
35.086819 109.51338 115.53094 4.5914161e-039
36.452221 110.42879 118.16394 3.6730611e-039
37.32729 109.84889 116.48868 4.3159096e-039
38.238308 109.40405 115.20251 4.7750871e-039
39.481609 109.90828 116.65063 4.2240741e-039
40.784245 110.54675 118.48535 3.5812256e-039
41.687946 110.09896 117.19046 4.0404031e-039
42.582691 109.65044 115.89346 4.4995806e-039
43.792027 110.01411 116.93628 4.1322386e-039
44.786968 109.8347 116.41449 4.3159096e-039
45.947598 110.06052 117.06003 4.0404031e-039
46.880856 109.74381 116.14261 4.4077451e-039
47.748516 109.29104 114.83328 4.8669226e-039
49.029766 109.78405 116.24832 4.4077451e-039
50.073235 109.73497 116.10181 4.4077451e-039
51.430038 110.36028 117.89786 3.7648966e-039
52.990894 111.38902 120.85593 2.6628707e-039
53.522564 110.25648 117.58832 3.8567321e-039
54.23262 109.52863 115.48654 4.6832516e-039
55.200626 109.33971 114.9371 4.8669226e-039
56.164536 109.14996 114.38525 5.0505936e-039
57.265533 109.2287 114.60678 4.9587581e-039
58.008053 108.63327 112.88647 5.6016065e-039
59.323975 109.11375 114.26505 5.0505936e-039
60.49955 109.32376 114.86453 4.8669226e-039
61.300087 108.8605 113.52502 5.3261e-039
62.552982 109.20267 114.5051 4.9587581e-039
63.655285 109.27492 114.70782 4.9587581e-039
64.678886 109.21188 114.52097 4.9587581e-039
65.458527 108.74562 113.17285 5.509771e-039
66.392776 108.54691 112.59528 5.693442e-039
67.32267 108.34741 112.0155 5.877113e-039
68.670532 108.81637 113.36069 5.4179355e-039
69.940758 109.14997 114.31604 5.0505936e-039
70.868713 108.94742 113.72748 5.3261e-039
72.321411 109.54565 115.44485 4.6832516e-039
73.069031 109.07406 114.08163 5.1424291e-039
74.079239 109.00231 113.86981 5.2342645e-039
75.087425 108.92966 113.6554 5.3261e-039
76.000443 108.72285 113.05475 5.509771e-039
76.720184 108.24903 111.6853 6.060784e-039
77.908455 108.44015 112.23044 5.877113e-039
78.615417 107.96518 110.85782 6.3362905e-039
80.39135 108.95143 113.69241 5.3261e-039
80.795036 108.07648 111.16821 6.244455e-039
81.684319 107.86519 110.55487 6.428126e-039
83.179092 108.44868 112.22986 5.877113e-039
83.3461 107.30811 108.94116 7.0709745e-039
84.532593 107.49206 109.46591 6.8873035e-039
85.51104 107.41021 109.2254 6.979139e-039
87.871857 109.04581 113.92932 5.2342645e-039
88.753639 108.82887 113.29996 5.4179355e-039
125.82487 92.571159 66.317932 2.2683009e-038
124.52405 90.964386 61.693146 2.35063e-038
128.6947 93.348984 68.551025 2.1856489e-038
139.67474 97.867348 81.537964 1.7081044e-038
141.16438 98.242783 82.615784 1.6713702e-038
140.87129 97.380836 80.133942 1.7632057e-038
140.74333 96.643745 78.011444 1.836674e-038
142.41002 97.140594 79.438507 1.7907563e-038
140.63135 95.296234 74.130798 1.9836108e-038
140.284 94.43956 71.664459 2.0754463e-038
141.57491 94.689713 72.382019 2.0478957e-038
143.42258 95.30661 74.15448 1.9836108e-038
143.79454 94.941261 73.101532 2.020345e-038
144.53285 94.820923 72.753387 2.0295286e-038
145.83067 95.066833 73.458832 2.0111615e-038
146.00104 94.579277 72.054474 2.0570792e-038
-78.810532 81.151443 31.321411 2.3462893e-038
-77.848732 80.962692 30.786469 2.3462176e-038
-78.642776 82.614632 35.498566 2.3468633e-038
-77.42202 82.162163 34.211899 2.3466839e-038
-77.437729 83.026001 36.677704 2.3470426e-038
-77.681084 84.154518 39.897964 2.347509e-038
-75.612602 82.775902 35.971283 2.346935e-038
-75.359222 83.376175 37.685867 2.3471861e-038
-71.901604 80.406105 29.222137 2.3459664e-038
-70.72065 79.945084 27.911148 2.3457871e-038
-71.865501 82.131996 34.149094 2.3466839e-038
-70.90564 81.935402 33.592026 2.3466122e-038
-70.743538 82.666595 35.680069 2.3468992e-038
-70.680122 83.531075 38.148178 2.3472579e-038
-69.488846 83.067123 36.829025 2.3470785e-038
-69.955147 84.596931 41.194183 2.3476884e-038
-72.242996 88.391441 52.016541 2.3492668e-038
-68.651466 84.99707 42.342407 2.3478677e-038
-66.716461 83.596527 38.35289 2.3472938e-038
-64.385277 81.659363 32.833176 2.3465045e-038
-64.272453 82.522652 35.29834 2.3468633e-038
-68.049652 88.464554 52.244522 2.3492668e-038
-67.452179 88.797798 53.19873 2.3494103e-038
-64.840614 86.45414 46.519897 2.3484776e-038
-66.038979 89.195511 54.340851 2.3495896e-038
-66.01165 90.331749 57.584961 2.350056e-038
-65.189285 90.395821 57.77182 2.3500919e-038
-67.404457 96.028282 73.842194 1.9927944e-038
-67.457001 97.437866 77.866455 1.8458576e-038
-68.309425 100.05886 85.34549 1.5703511e-038
-68.388542 101.60582 89.761871 1.4050472e-038
-67.455841 101.67258 89.957031 1.4050472e-038
-66.697525 102.00798 90.918335 1.368313e-038
-66.193031 102.74737 93.031921 1.2856611e-038
-65.503044 103.2169 94.375916 1.2397433e-038
-64.719421 103.55105 95.333862 1.2030091e-038
-64.012138 104.01973 96.675537 1.1570914e-038
-63.049965 104.0825 96.859528 1.1479078e-038
-62.166676 104.27959 97.426666 1.1295407e-038
-61.596672 105.0173 99.535767 1.0468888e-038
-61.012409 105.75482 101.6445 9.7342039e-039
-60.029541 105.81479 101.82062 9.6423684e-039
-59.196224 106.14494 102.76743 9.2750264e-039
-57.910168 105.66064 101.39108 9.8260394e-039
-56.778751 105.44623 100.78452 1.000971e-038
-56.081623 106.04527 102.49835 9.4586974e-039
-54.596901 105.14956 99.948334 1.0377052e-038
-53.197659 104.38786 97.780426 1.1111736e-038
-53.512047 107.02412 105.30582 8.3566714e-039
-51.708229 105.4442 100.80383 1.000971e-038
-48.821011 101.54768 89.692841 1.4142308e-038
-47.931458 101.73205 90.223572 1.3958637e-038
-47.478176 102.86938 93.472992 1.2764775e-038
-46.325127 104.73507 98.805206 1.0744394e-038
-46.341438 107.10021 105.55774 8.2648359e-039
-43.656357 103.18774 94.400085 1.2397433e-038
-42.230335 102.1385 91.411102 1.3499459e-038
-40.878922 101.22401 88.806458 1.4417814e-038
-40.029293 101.53772 89.706055 1.4142308e-038
-40.11982 104.31153 97.624756 1.1203572e-038
-39.849709 106.2659 103.20557 9.1831909e-039
-39.830189 111.95513 119.44794 3.2138836e-039
-39.051674 112.81597 121.90884 2.2955287e-039
-37.623665 115.08418 128.39014 9.1478165e-041
-35.659142 112.38035 120.67926 2.7547062e-039
-34.673767 112.68975 121.56647 2.3873642e-039
-33.518669 112.44971 120.88574 2.6628707e-039
-30.300776 112.54575 121.17194 2.5710352e-039
-25.934769 112.38401 120.7251 2.7547062e-039
-24.829397 112.27208 120.40909 2.8465416e-039
-23.725952 112.15902 120.08972 2.9383771e-039
-22.652195 112.18232 120.15936 2.9383771e-039
-21.524908 111.92951 119.44089 3.2138836e-039
-20.477638 112.08813 119.89648 3.0302126e-039
-19.569988 113.07104 122.70453 2.0200222e-039
-18.575853 113.64049 124.33234 1.3771737e-039
-17.380093 112.9706 122.423 2.1118577e-039
-16.256584 112.71227 121.68808 2.3873642e-039
-15.137866 112.45277 120.94971 2.6628707e-039
-14.024016 112.19212 120.20792 2.9383771e-039
-12.978573 112.48102 121.03439 2.5710352e-039
-11.956613 113.0443 122.64383 2.0200222e-039
-10.831017 112.64265 121.49915 2.4791997e-039
-9.7249832 112.37755 120.74399 2.7547062e-039
-8.6769218 112.79996 121.95099 2.2955287e-039
-7.5650411 112.39493 120.79611 2.6628707e-039
-6.4767847 112.26424 120.42416 2.8465416e-039
-5.4108543 112.54571 121.22839 2.5710352e-039
-4.3288631 112.55061 121.2431 2.5710352e-039
-3.2745852 113.51878 124.00702 1.4690092e-039
-2.1937017 114.07259 125.58813 9.1799623e-040
-1.0809731 112.42098 120.87436 2.6628707e-039
-4.9201235e-006 112.5593 121.2692 2.4791997e-039
1.0809767 112.42098 120.87436 2.6628707e-039
2.1592631 112.2816 120.47626 2.8465416e-039
3.2348351 112.14111 120.07486 2.9383771e-039
4.3447623 112.96389 122.42267 2.1118577e-039
5.3644981 111.58142 118.47614 3.5812256e-039
6.4449992 111.71324 118.8515 3.3975546e-039
7.509419 111.5685 118.43732 3.5812256e-039
8.6345463 112.24905 120.37857 2.8465416e-039
9.7964935 113.20385 123.10242 1.8363512e-039
10.778057 112.09182 119.927 3.0302126e-039
11.912913 112.63123 121.46487 2.4791997e-039
13.026234 112.89404 122.2132 2.2036932e-039
13.955191 111.64149 118.63632 3.4893901e-039
15.082284 112.03984 119.77118 3.0302126e-039
16.197025 112.29941 120.50974 2.7547062e-039
17.1684 111.59457 118.49576 3.5812256e-039
18.283487 111.85196 119.22784 3.3057191e-039
19.546186 112.93349 122.31195 2.1118577e-039
20.527893 112.36319 120.68149 2.7547062e-039
21.52491 111.92951 119.44089 3.2138836e-039
22.763239 112.73223 121.72876 2.3873642e-039
23.638714 111.74667 118.9129 3.3975546e-039
24.768621 111.99725 119.62476 3.1220481e-039
25.712835 111.42229 117.9805 3.7648966e-039
26.843901 111.67064 118.68579 3.4893901e-039
27.876457 111.50584 118.21188 3.6730611e-039
29.11944 112.16376 120.08569 2.9383771e-039
30.079065 111.72224 118.8219 3.3975546e-039
30.953444 111.00547 116.77255 4.1322386e-039
32.130405 111.38541 117.85275 3.7648966e-039
33.109894 111.07838 116.9725 4.1322386e-039
34.125404 110.90755 116.48087 4.3159096e-039
35.267765 111.1469 117.15961 4.0404031e-039
36.503914 111.65904 118.61664 3.4893901e-039
37.749435 112.16975 120.06949 2.9383771e-039
38.38818 110.89919 116.43951 4.3159096e-039
39.440655 110.86021 116.32373 4.3159096e-039
40.741943 111.50426 118.15677 3.6730611e-039
41.337025 110.23206 114.52216 4.9587581e-039
42.223095 109.78004 113.22766 5.509771e-039
43.315685 109.87392 113.49078 5.4179355e-039
44.409626 109.9667 113.75061 5.2342645e-039
46.013004 111.28727 117.51346 3.8567321e-039
47.178879 111.51373 118.15457 3.6730611e-039
47.817284 110.51103 115.28885 4.6832516e-039
49.099812 111.00826 116.70236 4.2240741e-039
50.268021 111.23136 117.33377 3.9485676e-039
51.565704 111.72569 118.73886 3.4893901e-039
52.743843 111.94611 119.36249 3.2138836e-039
53.598389 111.48465 118.0408 3.6730611e-039
54.510475 111.15861 117.10547 4.0404031e-039
55.619896 111.23981 117.33185 3.9485676e-039
56.73032 111.31986 117.55493 3.8567321e-039
57.488976 110.7195 115.83707 4.4995806e-039
58.020428 109.71136 112.95602 5.6016065e-039
59.190197 109.92464 113.55914 5.3261e-039
60.437698 110.27228 114.5455 4.9587581e-039
61.313065 109.94069 113.59436 5.3261e-039
62.489143 110.15035 114.18716 5.1424291e-039
63.902878 110.76499 115.93497 4.4995806e-039
64.771751 110.43055 114.97574 4.8669226e-039
65.39193 109.68969 112.85736 5.6016065e-039
66.489052 109.75972 113.05185 5.509771e-039
67.254318 109.28825 111.70197 6.060784e-039
68.432121 109.49139 112.27606 5.7852775e-039
69.784279 109.96311 113.61618 5.3261e-039
71.231331 110.56804 115.33618 4.6832516e-039
72.68885 111.17117 117.05106 4.0404031e-039
73.08461 110.15652 114.1521 5.1424291e-039
73.64222 109.4113 112.02173 5.877113e-039
74.828186 109.60749 112.57605 5.693442e-039
75.36573 108.86162 110.44388 6.5199615e-039
76.548851 109.05589 110.99283 6.3362905e-039
77.352806 108.71205 110.00723 6.611797e-039
78.439926 108.77004 110.16757 6.611797e-039
80.017097 109.49707 112.23575 5.877113e-039
80.71431 109.01673 110.86102 6.3362905e-039
81.502441 108.66992 109.86716 6.7036325e-039
82.791458 108.99128 110.77856 6.3362905e-039
83.674347 108.77665 110.16168 6.611797e-039
84.240601 108.16077 108.40073 7.2546455e-039
85.321007 108.212 108.54199 7.16281e-039
87.039978 109.06214 110.96118 6.3362905e-039
88.665855 109.77677 112.99396 5.6016065e-039
115.44845 131.94109 176.14917 9.1745813e-041
122.93863 91.982864 62.086456 2.3507017e-038
126.05287 93.639275 66.80368 2.2499338e-038
124.24348 91.640579 61.106628 2.3505582e-038
128.75308 94.298027 68.675964 2.1856489e-038
139.2993 99.226898 82.70993 1.6713702e-038
141.67308 100.2313 85.569214 1.5611676e-038
142.28537 99.984314 84.863251 1.5887182e-038
139.32047 97.243813 77.053162 1.8734082e-038
138.82593 96.25264 74.227051 1.9836108e-038
141.74568 97.626167 78.138123 1.836674e-038
141.78131 97.00827 76.375549 1.9009589e-038
140.71135 95.646927 72.495026 2.0478957e-038
141.45395 95.527344 72.152283 2.0570792e-038
143.30032 96.149895 73.923859 1.9927944e-038
144.78458 96.523056 74.984924 1.9560602e-038
144.78297 95.907188 73.228394 2.020345e-038
145.52007 95.785362 72.879364 2.0295286e-038
145.50142 95.170738 71.126434 2.0938134e-038
-78.734192 81.852394 31.100342 2.3462534e-038
-77.89946 81.794441 30.939804 2.3462176e-038
-78.691444 83.460617 35.647324 2.3468992e-038
-77.470573 83.004189 34.361786 2.3467198e-038
-76.257011 82.546242 33.071991 2.3465404e-038
-75.780609 82.885025 34.031799 2.3466839e-038
-74.81572 82.691071 33.487381 2.3465763e-038
-74.688797 83.428963 35.574249 2.3468992e-038
-71.358414 80.565956 27.493332 2.3457153e-038
-70.651062 80.634377 27.689774 2.3457512e-038
-72.142067 83.240837 35.053177 2.3468274e-038
-71.752602 83.71138 36.385284 2.3470068e-038
-71.5811 84.449623 38.473434 2.3472938e-038
-69.487564 82.911285 34.132874 2.3466839e-038
-69.531006 83.916725 36.975647 2.3470785e-038
-68.017647 83.044785 34.516876 2.3467557e-038
-67.823471 83.781944 36.602127 2.3470426e-038
-67.293106 84.116386 37.550217 2.3471861e-038
-66.543579 84.181656 37.738159 2.3471861e-038
-64.636215 82.765884 33.743515 2.3466122e-038
-65.247086 84.579567 38.869324 2.3473655e-038
-67.570686 88.686523 50.472076 2.3490157e-038
-66.978554 89.02211 51.423813 2.3491592e-038
-65.176529 87.737617 47.799973 2.3486569e-038
-65.378166 89.152054 51.798752 2.3492309e-038
-65.260231 90.162148 54.655762 2.3496255e-038
-66.476204 93.066696 62.863586 2.3508093e-038
-68.306953 96.92205 73.757294 1.9927944e-038
-68.089676 97.937202 76.629089 1.8917753e-038
-68.596977 100.03728 82.56546 1.6713702e-038
-68.882156 101.86799 87.74118 1.4876992e-038
-68.228584 102.34287 89.087341 1.4325979e-038
-67.387268 102.54581 89.665314 1.4142308e-038
-66.717628 103.01988 91.009216 1.3591295e-038
-66.125542 103.62959 92.736359 1.3040282e-038
-65.350647 103.96695 93.694214 1.267294e-038
-64.653275 104.43993 95.035187 1.2121927e-038
-63.780567 104.64001 95.605316 1.1938256e-038
-62.985409 104.97569 96.558563 1.1570914e-038
-62.102966 105.17435 97.124786 1.1387243e-038
-61.374874 105.64529 98.460144 1.0928065e-038
-60.949734 106.66203 101.33759 9.8260394e-039
-60.582085 107.81561 104.60165 8.6321779e-039
-59.28635 107.32874 103.23126 9.1831909e-039
-57.404938 105.74593 98.764374 1.0744394e-038
-56.647194 106.21351 100.09036 1.0285217e-038
-55.880302 106.68056 101.41498 9.8260394e-039
-54.39957 105.77693 98.866821 1.0744394e-038
-52.796673 104.59719 95.538391 1.1938256e-038
-53.252926 107.52991 103.8298 8.9076844e-039
-51.787975 106.62231 101.27023 9.8260394e-039
-48.901161 102.69241 90.170715 1.3958637e-038
-47.689434 102.19167 88.760437 1.4417814e-038
-48.685287 106.49908 100.93661 1.000971e-038
-46.277313 103.38549 92.143158 1.3223953e-038
-46.638512 106.45748 100.8287 1.000971e-038
-46.234257 107.87994 104.85312 8.5403424e-039
-43.322472 103.38319 92.150513 1.3223953e-038
-42.242741 103.1509 91.498627 1.3499459e-038
-40.946533 102.36635 89.28595 1.4234143e-038
-39.987549 102.40714 89.405609 1.4234143e-038
-40.183002 105.48041 98.095245 1.1019901e-038
-39.859344 107.3136 103.28049 9.0913554e-039
-39.837204 113.05151 119.50574 3.1220481e-039
-38.963501 113.64352 121.18347 2.5710352e-039
-37.494793 115.79276 127.26675 2.7514776e-040
-35.839008 114.0332 122.29807 2.1118577e-039
-34.721718 113.93063 122.01242 2.2036932e-039
-33.483524 113.41194 120.5506 2.7547062e-039
-32.41293 113.44527 120.64883 2.7547062e-039
-31.608957 114.44622 123.48203 1.7445157e-039
-30.305893 113.64709 121.2272 2.5710352e-039
-25.907518 113.34537 120.38882 2.8465416e-039
-24.742579 112.95528 119.28946 3.2138836e-039
-23.701002 113.11841 119.75378 3.0302126e-039
-22.628374 113.14185 119.82321 3.0302126e-039
-21.50226 112.88686 119.10535 3.3057191e-039
-20.556492 113.60163 121.12872 2.5710352e-039
-19.620737 114.4543 123.54181 1.6526802e-039
-18.533821 114.47363 123.59906 1.6526802e-039
-17.467531 114.63063 124.04535 1.4690092e-039
-16.378246 114.64777 124.09616 1.4690092e-039
-15.288502 114.66382 124.14374 1.4690092e-039
-14.163948 114.40108 123.40311 1.7445157e-039
-13.012508 113.85946 121.8739 2.2955287e-039
-11.914907 113.73325 121.51883 2.3873642e-039
-10.806377 113.467 120.76776 2.6628707e-039
-9.7266331 113.47739 120.79865 2.6628707e-039
-8.6571865 113.62561 121.21899 2.5710352e-039
-7.5570693 113.356 120.45798 2.8465416e-039
-6.4858317 113.50204 120.87183 2.6628707e-039
-5.3985348 113.36913 120.49695 2.8465416e-039
-4.308423 113.09617 119.72601 3.1220481e-039
-3.2473085 113.65578 121.30856 2.4791997e-039
-2.1834462 114.63115 124.06635 1.4690092e-039
-1.0811582 113.52121 120.92874 2.6628707e-039
-4.9864889e-006 114.07757 122.50165 2.0200222e-039
1.0758549 112.96542 119.35751 3.2138836e-039
2.1596303 113.38063 120.53107 2.7547062e-039
3.2512817 113.79472 121.70135 2.3873642e-039
4.3454771 114.06875 122.47552 2.1118577e-039
5.385293 113.09126 119.71143 3.1220481e-039
6.4858356 113.50204 120.87183 2.6628707e-039
7.5478115 113.21709 120.06525 2.9383771e-039
8.6466055 113.4867 120.82629 2.6628707e-039
9.6909208 113.0607 119.6207 3.1220481e-039
10.779927 113.18924 119.98254 3.0302126e-039
11.885816 113.4555 120.73364 2.7547062e-039
13.028381 113.99832 122.26645 2.1118577e-039
14.077991 113.7069 121.4407 2.4791997e-039
15.121924 113.41446 120.61191 2.7547062e-039
16.398081 114.78658 124.48856 1.3771737e-039
17.213755 112.96529 119.33768 3.2138836e-039
18.309174 113.08607 119.67667 3.1220481e-039
19.478045 113.6219 121.18878 2.5710352e-039
20.405886 112.76939 118.77615 3.3975546e-039
21.449432 112.6095 118.32135 3.5812256e-039
22.48971 112.44858 117.86349 3.7648966e-039
23.497688 112.14803 117.0108 4.0404031e-039
24.864017 113.50966 120.85654 2.6628707e-039
25.654135 112.23685 117.25543 3.9485676e-039
26.58481 111.65623 115.61078 4.5914161e-039
28.018656 113.15225 119.83594 3.0302126e-039
28.946447 112.56951 118.18512 3.6730611e-039
30.158241 113.09338 119.66211 3.1220481e-039
30.997419 112.23202 117.22357 4.0404031e-039
32.136234 112.47683 117.91159 3.7648966e-039
33.15686 112.30549 117.42328 3.9485676e-039
34.300323 112.54797 118.10449 3.6730611e-039
35.317715 112.37454 117.61011 3.8567321e-039
36.376217 112.33833 117.50345 3.8567321e-039
37.571812 112.71542 118.56488 3.4893901e-039
38.34803 111.84844 116.11011 4.4077451e-039
39.399422 111.80919 115.99469 4.4995806e-039
40.699379 112.45881 117.82608 3.7648966e-039
41.293861 111.1758 114.1955 5.1424291e-039
47.76754 111.4576 114.96304 4.8669226e-039
49.289803 112.50933 117.93008 3.7648966e-039
50.338886 112.45921 117.78339 3.7648966e-039
51.44936 112.54549 118.02206 3.6730611e-039
52.368637 112.21853 117.09308 4.0404031e-039
53.281338 111.89081 116.16196 4.4077451e-039
54.65398 112.5229 117.94284 3.7648966e-039
55.901978 112.87899 118.94379 3.3975546e-039
56.74086 112.41113 117.61664 3.8567321e-039
57.570518 111.94269 116.28781 4.3159096e-039
58.606159 111.88449 116.11813 4.4077451e-039
59.932156 112.3728 117.49252 3.9485676e-039
61.043793 112.4491 117.70288 3.8567321e-039
61.929688 112.11408 116.7511 4.1322386e-039
63.039173 112.18835 116.9556 4.1322386e-039
64.305489 112.53459 117.92853 3.7648966e-039
65.577545 112.87939 118.89734 3.3975546e-039
66.37204 112.40426 117.54971 3.8567321e-039
67.238976 112.06496 116.58588 4.2240741e-039
67.517723 110.77126 112.92593 5.6016065e-039
68.530807 110.7036 112.72961 5.693442e-039
69.798599 111.04323 113.68384 5.3261e-039
71.158714 111.5174 115.01813 4.7750871e-039
72.350784 111.71812 115.57993 4.5914161e-039
72.921028 110.96678 113.45239 5.4179355e-039
73.838898 110.75835 112.85846 5.6016065e-039
74.752289 110.54916 112.26242 5.7852775e-039
75.661179 110.33922 111.66434 6.060784e-039
76.659737 110.26401 111.44687 6.1526195e-039
77.847046 110.45863 111.99155 5.9689485e-039
78.360756 109.70507 109.85812 6.7036325e-039
79.8386 110.30333 111.54288 6.060784e-039
80.434959 109.68404 109.78879 6.7036325e-039
80.919167 108.92964 107.6532 7.530152e-039
81.997971 108.98465 107.80371 7.4383165e-039
83.487793 109.57771 109.47388 6.8873035e-039
84.779663 109.89956 110.37799 6.5199615e-039
85.130623 109.00872 107.8573 7.4383165e-039
86.846817 109.86646 110.27487 6.5199615e-039
87.717522 109.6469 109.65012 6.795468e-039
116.14525 134.01375 178.42429 9.1758425e-041
117.2059 133.76761 177.72375 9.1754221e-041
126.2795 94.709625 67.286499 2.2315667e-038
124.81505 92.947372 62.310852 2.3507376e-038
126.58062 93.598343 64.145691 2.3509528e-038
135.519 98.815941 78.865601 1.8091234e-038
139.08858 100.71931 84.23465 1.6162689e-038
140.05444 100.72408 84.245758 1.6162689e-038
141.01941 100.72816 84.254913 1.6070853e-038
140.56366 99.72422 81.419495 1.7172879e-038
139.19899 98.093231 76.814667 1.8825918e-038
141.39673 98.977699 79.30838 1.7907563e-038
142.88557 99.357529 80.37796 1.7540221e-038
141.29585 97.60569 75.432312 1.9376931e-038
141.31924 96.983795 73.675323 2.0019779e-038
141.88206 96.73777 72.979004 2.0295286e-038
142.62444 96.616547 72.634857 2.0387121e-038
142.8083 96.120972 71.234436 2.0938134e-038
143.35602 95.875046 70.538452 2.1121805e-038
143.899 95.629097 69.842499 2.1397312e-038
143.30894 94.637978 67.043915 2.2407502e-038
-78.657379 82.551308 30.877777 2.3462176e-038
-77.571037 82.225319 29.969116 2.3460741e-038
-77.989464 83.503883 33.548172 2.3466122e-038
-77.64225 83.980385 34.884094 2.3467915e-038
-76.427414 83.518623 33.59581 2.3466122e-038
-76.192078 84.128738 35.305511 2.3468633e-038
-75.103027 83.799156 34.386948 2.3467198e-038
-75.210968 84.81237 37.224243 2.3471144e-038
-71.169777 81.11824 26.894821 2.3456436e-038
-70.347336 81.052353 26.713745 2.3456077e-038
-71.723404 83.545937 33.691986 2.3466122e-038
-71.910263 84.694321 36.907639 2.3470785e-038
-71.509811 85.168983 38.238861 2.3472579e-038
-69.64254 83.887589 34.657944 2.3467557e-038
-69.461517 84.631302 36.741791 2.3470426e-038
-69.047302 85.104828 38.069977 2.3472579e-038
-66.886833 83.411812 33.337509 2.3465763e-038
-67.01078 84.561226 36.556458 2.3470426e-038
-66.051926 84.355453 35.984451 2.346935e-038
-64.361153 83.198578 32.751617 2.3465045e-038
-64.869934 84.891533 37.491379 2.3471503e-038
-68.117981 90.256325 52.503815 2.3493385e-038
-67.012207 89.915108 51.553131 2.349195e-038
-65.110542 88.483543 47.551971 2.3486211e-038
-65.11396 89.637413 50.784088 2.3490874e-038
-66.17141 92.291679 58.214264 2.3501277e-038
-68.618652 98.291565 75.009521 1.9468766e-038
-68.490677 99.452225 78.261383 1.8274905e-038
-69.82695 102.8008 87.635162 1.4876992e-038
-69.544792 103.82743 90.51239 1.3774966e-038
-68.068375 103.075 88.411713 1.4601485e-038
-67.1399 103.14245 88.605133 1.450965e-038
-66.649208 103.89436 90.713867 1.3774966e-038
-65.970963 104.37199 92.055084 1.3223953e-038
-65.539841 105.26093 94.547424 1.2305598e-038
-65.176186 106.28735 97.424469 1.1295407e-038
-64.212654 106.35219 97.61084 1.1203572e-038
-63.165611 106.27862 97.409882 1.1295407e-038
-62.199776 106.34156 97.590881 1.1203572e-038
-61.628292 107.09181 99.695374 1.0468888e-038
-61.042591 107.84193 101.79956 9.6423684e-039
-60.289261 108.31628 103.13205 9.1831909e-039
-58.847672 107.54919 100.99023 1.000971e-038
-57.642105 107.19411 100.00143 1.0285217e-038
-57.025909 107.94189 102.09927 9.5505329e-039
-55.893867 107.72271 101.49078 9.8260394e-039
-54.413364 106.81141 98.945129 1.0744394e-038
-52.396072 104.79216 93.298401 1.2764775e-038
-52.043907 106.0895 96.934265 1.1479078e-038
-51.267902 106.55679 98.247009 1.1019901e-038
-49.046021 103.97758 91.032623 1.3591295e-038
-47.703659 103.19564 88.848602 1.4417814e-038
-49.073669 108.37102 103.33951 9.0913554e-039
-46.843636 105.64735 95.720398 1.1938256e-038
-47.011032 108.32977 103.23361 9.1831909e-039
-46.185814 108.79325 104.53571 8.6321779e-039
-42.988926 103.56422 89.903046 1.4050472e-038
-42.142094 103.88515 90.805817 1.368313e-038
-41.178806 103.92746 90.92868 1.368313e-038
-39.945549 103.27385 89.103302 1.4325979e-038
-40.40313 107.06829 99.729889 1.0468888e-038
-40.175678 109.19541 105.68906 8.2648359e-039
-40.40712 112.71461 115.54547 4.5914161e-039
-39.941032 114.42563 120.34006 2.8465416e-039
-38.827866 114.32648 120.06699 2.9383771e-039
-37.455254 116.77226 126.92307 4.5881875e-040
-36.148361 116.11292 125.08142 1.1016672e-039
-34.558788 114.47597 120.50266 2.7547062e-039
-33.244225 113.67377 118.2608 3.5812256e-039
-32.339203 114.26519 119.92062 3.0302126e-039
-31.422834 114.85585 121.57825 2.3873642e-039
-30.531969 115.58533 123.62451 1.6526802e-039
-26.853218 113.85766 118.79803 3.3975546e-039
-25.62698 113.18583 116.92032 4.1322386e-039
-24.564743 113.21143 116.99527 4.1322386e-039
-23.733927 114.35435 120.19861 2.9383771e-039
-22.632092 114.23819 119.87643 3.0302126e-039
-21.426693 113.56149 117.9845 3.7648966e-039
-20.509617 114.4221 120.39713 2.8465416e-039
-19.457384 114.5824 120.84863 2.6628707e-039
-18.446848 115.02149 122.08078 2.2036932e-039
-17.40675 115.31968 122.91818 1.9281867e-039
-16.202415 114.49707 120.617 2.7547062e-039
-15.179832 114.93305 121.84 2.2955287e-039
-14.06305 114.66798 121.09976 2.5710352e-039
-12.951135 114.40174 120.35608 2.8465416e-039
-11.844133 114.13435 119.60901 3.1220481e-039
-10.728836 113.72572 118.46634 3.5812256e-039
-9.692523 114.15634 119.67365 3.1220481e-039
-8.6902809 115.14626 122.44699 2.1118577e-039
-7.5675406 114.59422 120.90228 2.6628707e-039
-6.4551458 114.04099 119.35403 3.2138836e-039
-5.3795829 114.04704 119.3718 3.2138836e-039
-4.3091393 114.19211 119.77875 3.0302126e-039
-3.227999 114.05582 119.39767 3.2138836e-039
-2.1626174 114.61907 120.97534 2.6628707e-039
-1.0786825 114.34048 120.1954 2.9383771e-039
-5.0102553e-006 114.62128 120.98184 2.6628707e-039
1.0852958 115.0411 122.15738 2.2036932e-039
2.178484 115.4598 123.32968 1.7445157e-039
3.2517827 114.89654 121.75195 2.2955287e-039
4.3408532 115.03278 122.13293 2.2036932e-039
5.3993993 114.46736 120.54886 2.7547062e-039
6.5423813 115.58209 123.66965 1.6526802e-039
7.5767951 114.73431 121.29456 2.4791997e-039
8.6902847 115.14626 122.44699 2.1118577e-039
9.7876673 115.27689 122.81152 1.9281867e-039
10.808117 114.56606 120.81952 2.6628707e-039
11.916786 114.83455 121.56979 2.3873642e-039
12.919435 114.12169 119.57187 3.1220481e-039
13.977199 113.96793 119.13943 3.3057191e-039
15.179835 114.93305 121.84 2.2955287e-039
16.123188 113.93717 119.04919 3.3057191e-039
17.153244 113.64027 118.21552 3.6730611e-039
18.132656 113.06248 116.59521 4.2240741e-039
19.267326 113.46315 117.71457 3.8567321e-039
20.309036 113.30305 117.26364 3.9485676e-039
21.453085 113.70134 118.3761 3.5812256e-039
22.188871 112.00097 113.61203 5.3261e-039
23.646873 113.93496 119.02429 3.3057191e-039
24.504093 112.93189 116.21255 4.4077451e-039
25.626984 113.18583 116.92032 4.1322386e-039
26.62258 112.87972 116.05988 4.4077451e-039
27.680687 112.85202 115.97885 4.4995806e-039
28.809132 113.10252 116.67667 4.2240741e-039
29.941982 113.35179 117.37091 3.9485676e-039
30.926474 113.04161 116.49866 4.3159096e-039
32.023315 113.14905 116.79562 4.1322386e-039
33.162632 113.39483 117.4798 3.9485676e-039
34.053658 112.80275 115.81808 4.4995806e-039
34.976688 112.34935 114.54459 4.9587581e-039
35.980289 112.17383 114.04901 5.1424291e-039
37.256237 112.83317 115.89066 4.4995806e-039
38.354919 112.93395 116.16846 4.4077451e-039
39.309349 112.61598 115.27383 4.6832516e-039
40.656551 113.41037 117.49329 3.9485676e-039
47.953133 112.95625 116.18887 4.4077451e-039
49.117805 113.18449 116.82285 4.1322386e-039
50.040314 112.85687 115.90079 4.4995806e-039
51.019051 112.66705 115.36447 4.6832516e-039
51.929745 112.33781 114.4379 5.0505936e-039
53.029793 112.42317 114.67178 4.9587581e-039
54.463814 113.1993 116.83905 4.1322386e-039
55.504456 113.14368 116.67825 4.2240741e-039
56.197903 112.39582 114.57993 4.9587581e-039
57.22905 112.33852 114.41446 5.0505936e-039
58.258602 112.28022 114.24615 5.1424291e-039
59.724068 113.04912 116.39294 4.3159096e-039
60.609528 112.71246 115.44553 4.6832516e-039
61.488277 112.37511 114.49622 5.0505936e-039
62.973885 113.13953 116.63031 4.2240741e-039
64.083031 113.21338 116.83173 4.1322386e-039
65.192924 113.28606 117.02994 4.0404031e-039
65.981644 112.80733 115.685 4.5914161e-039
67.087914 112.87807 115.87778 4.4995806e-039
67.531128 111.84842 112.99121 5.6016065e-039
68.460274 111.6429 112.41098 5.7852775e-039
69.470505 111.57384 112.21255 5.877113e-039
70.565514 111.64098 112.39529 5.7852775e-039
71.749016 111.84406 112.95844 5.6016065e-039
73.024666 112.18282 113.90121 5.2342645e-039
74.034538 112.10944 113.69083 5.3261e-039
74.950783 111.89835 113.09503 5.509771e-039
76.048241 111.95991 113.26221 5.4179355e-039
76.769775 111.47392 111.89737 5.9689485e-039
78.434921 112.35272 114.35117 5.0505936e-039
78.667198 111.18299 111.07339 6.244455e-039
79.855286 111.37711 111.61157 6.060784e-039
80.25444 110.48014 109.09711 6.979139e-039
81.037567 110.12798 108.10699 7.346481e-039
82.320595 110.45547 109.0184 6.979139e-039
83.300903 110.3737 108.78479 7.0709745e-039
85.420738 111.78516 112.72864 5.693442e-039
85.044914 109.93611 107.55109 7.530152e-039
87.39666 111.61503 112.2431 5.877113e-039
87.414703 110.30903 108.58487 7.16281e-039
117.44032 135.31166 178.48392 9.1758425e-041
117.08196 133.44827 173.26645 9.1730399e-041
125.21428 94.132721 63.152954 2.3508452e-038
128.35248 95.812401 67.846313 2.2131996e-038
137.30545 101.07207 82.544952 1.6713702e-038
128.70796 93.445503 61.220673 2.3505582e-038
139.66051 100.70758 81.518982 1.7081044e-038
140.26251 100.45827 80.819763 1.735655e-038
139.43326 99.194122 77.283722 1.8642247e-038
141.09348 99.706055 78.712524 1.818307e-038
142.40012 99.962997 79.428528 1.7907563e-038
140.99139 98.322945 74.841858 1.9560602e-038
140.83192 97.569832 72.734619 2.0387121e-038
141.94208 97.700401 73.097504 2.020345e-038
141.76454 96.948662 70.99411 2.102997e-038
141.94475 96.449631 69.597229 2.1489147e-038
143.23256 96.704788 70.308441 2.1213641e-038
144.8972 97.209518 71.717255 2.0754463e-038
145.06525 96.710175 70.31955 2.1213641e-038
-80.953308 84.921608 35.287155 2.3468633e-038
-78.707222 83.382896 31.026978 2.3462534e-038
-77.998703 83.458603 31.239853 2.3462534e-038
-78.536842 84.883255 35.190308 2.3468274e-038
-77.070686 84.148613 33.157959 2.3465404e-038
-76.106651 83.952705 32.618317 2.3464687e-038
-75.752312 84.432281 33.950378 2.346648e-038
-74.908188 84.37027 33.781799 2.346648e-038
-75.374283 85.798386 37.742325 2.3471861e-038
-70.863037 81.530594 25.919678 2.3455001e-038
-70.627312 82.142639 27.618927 2.3457512e-038
-71.767242 84.385666 33.837723 2.346648e-038
-72.52459 86.223701 38.934479 2.3473655e-038
-71.32486 85.750122 37.62561 2.3471861e-038
-69.236458 84.185242 33.292526 2.3465763e-038
-69.391632 85.343719 36.506409 2.3470426e-038
-68.758377 85.548233 37.076675 2.3471144e-038
-67.795578 85.342651 36.510529 2.3470426e-038
-66.621185 84.862701 35.183975 2.3468274e-038
-65.772865 84.791542 34.990295 2.3467915e-038
-63.981236 83.487709 31.380417 2.3462893e-038
-65.840935 86.97506 41.049072 2.3476884e-038
-70.200867 93.893639 60.227783 2.3504147e-038
-67.349068 91.219627 52.820602 2.3493744e-038
-64.743935 88.815392 46.16098 2.3484058e-038
-65.838326 91.489616 53.576843 2.349482e-038
-67.080154 94.441803 61.763367 2.3506658e-038
-68.558411 97.81002 71.103302 2.0938134e-038
-68.357887 98.841789 73.967499 1.9927944e-038
-68.796295 100.83841 79.506165 1.7815728e-038
-69.847946 103.8018 87.724731 1.4876992e-038
-69.290154 104.42319 89.451782 1.4234143e-038
-68.359467 104.49232 89.648071 1.4142308e-038
-67.515999 104.69869 90.224884 1.3958637e-038
-66.668213 104.90437 90.799744 1.368313e-038
-66.162537 105.66257 92.906219 1.2948446e-038
-65.642685 106.42074 95.012726 1.2121927e-038
-64.940399 106.90191 96.35141 1.1662749e-038
-63.8974 106.82845 96.152618 1.1754585e-038
-62.855095 106.75391 95.950806 1.184642e-038
-62.135094 107.23316 97.284302 1.1295407e-038
-61.564156 107.98959 99.38623 1.0560723e-038
-60.823242 108.46811 100.7178 1.0101546e-038
-59.843243 108.52929 100.8923 1.000971e-038
-58.635494 108.17237 99.907715 1.0377052e-038
-57.655979 108.23141 100.07626 1.0285217e-038
-56.310646 107.59354 98.312622 1.0928065e-038
-55.978519 108.90367 101.94992 9.6423684e-039
-54.356354 107.70609 98.634338 1.083623e-038
-52.686371 106.36686 94.925812 1.2213762e-038
-51.718132 106.42001 95.077972 1.2121927e-038
-50.748451 106.47224 95.227478 1.2121927e-038
-49.059704 104.98776 91.115936 1.3591295e-038
-48.740852 106.4341 95.131104 1.2121927e-038
-48.583179 108.3 100.30975 1.0193381e-038
-46.180172 105.13359 91.534058 1.3407624e-038
-46.841198 108.95671 102.14017 9.5505329e-039
-46.078232 109.56379 103.82831 8.9076844e-039
-43.058655 104.71082 90.375092 1.3866801e-038
-42.153843 104.89444 90.888672 1.368313e-038
-41.245255 105.07719 91.399811 1.3499459e-038
-40.171803 104.83861 90.742493 1.3774966e-038
-40.570015 108.5248 100.9696 1.000971e-038
-40.115128 112.95576 113.26682 5.4179355e-039
-39.850121 115.24226 119.61258 3.1220481e-039
-38.881145 115.56341 120.50772 2.7547062e-039
-35.9799 116.6621 123.56778 1.6526802e-039
-34.353844 114.87067 118.60327 3.4893901e-039
-33.249607 114.76477 118.31354 3.5812256e-039
-32.265347 115.07976 119.1911 3.3057191e-039
-31.503803 116.23814 122.40796 2.1118577e-039
-30.720469 117.39609 125.6235 9.1799623e-040
-26.890425 115.091 119.24048 3.3057191e-039
-25.820875 115.1181 119.31897 3.2138836e-039
-24.690014 114.86225 118.61249 3.4893901e-039
-23.679609 115.16901 119.46655 3.2138836e-039
-22.580267 115.05183 119.1445 3.3057191e-039
-21.430178 114.65145 118.03671 3.6730611e-039
-20.462667 115.23715 119.66415 3.1220481e-039
-19.41287 115.39874 120.11505 2.9383771e-039
-18.31505 115.27707 119.78 3.0302126e-039
-17.240427 115.29537 119.83316 3.0302126e-039
-16.165318 115.31256 119.88312 3.0302126e-039
-15.126674 115.61098 120.71301 2.7547062e-039
-14.030874 115.48483 120.36505 2.8465416e-039
-12.953122 115.49872 120.40543 2.8465416e-039
-11.860497 115.37029 120.05081 2.9383771e-039
-10.770161 115.24072 119.69296 3.1220481e-039
-9.7177963 115.53373 120.50723 2.7547062e-039
-8.6704321 115.96694 121.7103 2.3873642e-039
-7.5964093 116.11658 122.1265 2.2036932e-039
-6.4640903 115.27622 119.7962 3.0302126e-039
-5.3870282 115.28233 119.81396 3.0302126e-039
-4.2992363 115.00475 119.04459 3.3057191e-039
-3.2403913 115.57378 120.62372 2.7547062e-039
-2.1629534 115.71785 121.02377 2.5710352e-039
-1.0762149 115.15434 119.46075 3.2138836e-039
-5.0768135e-006 116.14396 122.20621 2.2036932e-039
1.0854483 116.14339 122.20456 2.2036932e-039
2.176162 116.42432 122.98364 1.9281867e-039
3.2562263 116.13893 122.19156 2.2036932e-039
4.3414927 116.13502 122.18018 2.2036932e-039
5.3738146 114.99976 119.03009 3.3057191e-039
6.4878592 115.70003 120.97192 2.6628707e-039
7.6056538 116.25783 122.51837 2.0200222e-039
8.6809816 116.10818 122.10214 2.2036932e-039
9.7177868 115.53373 120.50723 2.7547062e-039
10.770164 115.24072 119.69296 3.1220481e-039
11.904052 115.79391 121.22604 2.5710352e-039
12.968961 115.63992 120.79712 2.6628707e-039
14.150932 116.47309 123.10654 1.8363512e-039
15.015859 114.76401 118.36346 3.5812256e-039
16.224665 115.73599 121.05771 2.5710352e-039
17.324841 115.85986 121.39905 2.4791997e-039
18.225382 114.71267 118.21439 3.6730611e-039
19.36541 115.11659 119.33234 3.2138836e-039
20.487719 115.37821 120.05545 2.9383771e-039
21.351105 114.22838 116.86316 4.1322386e-039
22.331224 113.78288 115.62451 4.5914161e-039
23.679613 115.16901 119.46655 3.2138836e-039
24.538544 114.15757 116.65778 4.2240741e-039
25.599648 114.13177 116.58307 4.2240741e-039
26.890415 115.091 119.24048 3.3057191e-039
27.651188 113.79526 115.64297 4.5914161e-039
